# .PCD v0.7 - Point Cloud Data file format
VERSION 0.7
FIELDS x y z
SIZE 4 4 4
TYPE F F F
COUNT 1 1 1
WIDTH 1609
HEIGHT 1
VIEWPOINT 0 0 0 1 0 0 0
POINTS 1609
DATA ascii
42.986252 -0.51084304 12.52857
36.2784 -24.309898 145.9893
-24.046499 31.839899 9.5635796
-25.67025 30.559351 10.49112
-28.421249 27.818851 9.3104248
-24.048599 32.209949 11.719155
-24.3627 30.935251 7.0346098
-24.79665 29.2089 4.0197902
-23.307899 31.412848 5.7816596
-27.563251 28.13295 7.477725
-18.9603 35.06385 8.2382097
-23.395802 32.378551 9.4605303
-20.583151 34.352848 10.371659
-23.252401 32.134949 7.8510003
-18.584101 35.029049 6.9561
-15.821249 36.578701 7.7904153
-8.8395147 39.321449 14.009445
-3.8533049 42.12735 121.54111
-1.9619999 42.322952 122.77695
0.94570196 38.771549 4.7874899
-3.8782198 39.428997 7.117095
29.3106 11.908215 -1.237263
35.559902 18.380699 2.5411501
33.586952 23.069099 4.3817248
31.5138 26.2596 6.2404051
33.295353 24.921751 8.5674753
34.2066 23.859001 8.40798
33.90345 23.2404 5.3741102
31.318199 27.666149 11.68395
30.4212 28.295549 10.656105
-34.148853 2.0381849 160.77451
-32.715752 8.2420053 160.99051
-33.812851 3.373245 161.11501
-25.412701 17.596199 163.854
-29.76285 12.771211 162.5385
-31.210949 10.88223 161.715
-29.8461 15.308999 160.6035
-35.414249 -28.81995 122.5467
-38.819702 -23.359499 121.54994
-38.265148 -24.259651 121.71285
-41.135548 -17.646749 124.434
-29.139 -30.135748 6.6326098
-29.28405 -30.343201 7.1903253
-26.66925 -31.389149 4.154685
-27.103802 -30.71385 4.0647001
-19.276501 -39.81015 13.71504
-26.19795 -34.822651 13.811175
-27.102301 -34.009201 13.41444
-27.795151 -36.316498 124.22851
-25.1154 -38.472752 124.3635
-21.703951 -37.286098 146.75296
-23.339401 -36.384151 146.2113
-43.985851 -6.8643899 121.83344
-36.643497 16.227301 146.8938
-34.299747 18.882 149.72865
-44.245052 -0.52033651 122.4657
-41.998802 -2.64501 12.474045
-44.051098 1.5762451 121.7826
-40.565399 -11.946691 13.48569
-41.7948 0.13341901 11.43699
-29.45685 26.73555 145.86749
-30.298801 25.332901 147.5199
-6.4504051 41.891701 123.21404
-13.295595 40.071453 122.51415
-14.355076 37.709698 12.583935
-19.6485 35.130302 11.69613
-21.6609 36.227249 123.14639
7.1893048 42.083252 122.4681
15.57885 40.042049 122.16826
16.127701 39.496349 124.8246
-16.054049 35.988602 5.750175
35.13345 18.282751 151.9575
35.987099 17.754299 151.041
34.864349 23.431799 9.9909744
37.327049 23.615999 122.56696
34.356602 24.242849 11.968966
39.792152 19.583099 122.75085
42.314251 2.728245 9.4711504
42.768299 -0.67731297 10.200226
42.384148 4.95858 11.05245
41.87265 2.42646 7.6628852
42.023998 2.1408601 8.1158848
41.264549 4.0619698 6.2224951
41.852848 6.0855451 8.9645243
40.486198 9.4478998 6.1078053
41.132702 8.4527855 7.8150744
18.8235 34.330353 5.796165
18.67815 35.0853 7.6006947
3.8399551 39.940651 11.79165
3.1598699 39.787647 10.01196
37.64835 13.6002 2.5079401
36.673199 16.527901 2.71071
35.62785 19.157101 3.2892599
-24.731249 -32.271 2.7044699
14.446965 -44.690998 124.3998
30.989399 -21.031651 160.75049
22.9779 -29.09565 161.442
27.3288 13.31172 -1.4330984
-0.01903815 28.94985 -1.2204915
-1.4117656 31.51125 -0.77933246
-5.1813002 34.022999 -0.1792935
-1.483815 28.19895 -1.3721235
-4.7492099 31.505699 -0.88251001
35.347347 -10.527615 0.10708005
35.74575 -10.821 0.25756201
27.073351 12.679605 -1.4960639
41.679001 -9.5334148 7.6521306
37.259548 6.8545051 1.0194194
40.637253 -15.9363 142.55894
41.5476 -20.04525 124.3311
43.573952 -15.18585 122.95065
42.982651 -2.029635 142.96754
45.354599 -2.0348401 124.6095
42.753151 -3.3924301 144.92999
42.0732 0.87149101 148.28896
42.436798 0.8227995 146.45024
42.423748 3.48402 144.5889
41.456402 7.1415 146.5392
40.908302 8.058795 148.1655
40.639801 6.7684498 150.021
42.0168 0.34723198 148.7589
42.750748 -8.3499002 14.576505
43.085251 -3.5643899 13.74885
35.366852 -25.00815 148.30725
22.46475 -8.6467199 185.62801
33.083851 -16.798199 161.16
41.845951 -2.864145 149.68396
36.435299 -20.410049 152.112
33.0354 -18.885599 159.48599
32.266499 -19.563148 160.12801
33.809399 -17.424601 159.375
-12.63303 36.931198 4.2535648
-19.014299 34.487099 6.0705299
-21.274351 32.540398 4.6899748
-15.950399 35.276699 3.7767301
-8.4527855 38.055752 4.4030104
-4.7730298 38.915401 5.260335
-8.7041845 36.944401 2.3771851
-10.73139 37.247398 3.6914251
-11.016855 37.851002 5.4228296
-7.1028447 38.911049 6.1959147
-12.326955 37.81155 6.4969201
-4.8787651 39.46785 7.5772648
35.372101 13.668645 0.53056949
32.809498 21.584101 1.639455
24.634651 30.004198 2.907105
20.28195 32.22525 3.327255
22.0326 32.321697 4.3177199
3.73806 38.369251 4.5276599
5.9679899 36.721947 3.162915
5.3201251 36.663898 2.8222351
27.048599 30.958349 10.326674
22.529551 33.894451 10.944224
21.15675 34.909653 15.261301
24.75045 32.548199 10.64418
24.400501 32.980049 12.52887
23.985149 33.286652 13.724955
2.770905 28.0443 -1.2694499
1.1213715 28.1859 -1.326903
7.9943247 26.522551 -1.299858
29.401201 14.98353 -1.0391386
27.63645 15.697051 -1.2374024
28.236151 13.215285 -1.3339471
-23.0205 10.565969 167.50349
-24.883949 7.7004747 167.23651
-25.630051 8.3484297 166.75351
-24.9531 6.7405353 167.388
-24.79545 7.4839048 167.32051
-37.702351 8.1897144 152.15401
-38.950649 6.1004848 150.69751
-36.98085 13.999185 149.235
-39.36795 8.7788849 146.9868
-37.031399 14.553989 148.3233
-38.670151 11.76237 145.6926
-36.426003 10.965164 152.87851
-32.653648 9.506115 160.41
-33.095253 8.5474806 160.27501
-37.681499 11.138565 150.50099
-37.069798 9.2207699 152.7825
-27.388649 -3.5290051 166.89
-30.194099 -5.1026096 165.18599
-25.95645 -1.9607852 167.61899
-26.06925 -1.236003 167.55901
-26.026051 0.87704253 167.50349
15.206249 -5.2525802 186.717
-33.984749 -0.24926101 161.3385
-38.187302 3.9722099 153.021
-43.208549 -11.399236 123.08955
-43.425602 -10.91685 122.181
-43.36935 -8.8860149 124.77075
-44.103001 -3.7626002 123.7464
-41.177849 -2.3108549 145.4964
-34.54755 3.2647951 159.909
-32.813103 3.9970198 162.32851
-33.467548 0.14427871 162.069
-31.830299 6.9848404 162.64951
-28.1991 -1.155342 166.485
-28.8039 -1.445268 166.16399
-29.474701 0.87975448 165.66451
-26.583752 -1.1442901 167.3145
-28.53705 -3.05229 166.31549
-27.705 13.737165 163.989
-25.880251 13.149526 165.435
-28.539299 12.274096 163.9725
-27.778049 7.4937749 165.8385
-26.3319 11.02155 165.8325
-28.64115 10.13964 164.61749
-30.2931 8.5208549 163.8
-30.794548 7.5570745 163.64699
-27.3741 15.85605 163.19699
-28.727549 15.815701 161.718
-29.153851 12.628634 163.323
-26.924099 16.959751 162.95551
-26.808601 16.372799 163.44
-28.741949 18.121649 159.66
-30.044849 15.565649 160.077
-34.836597 15.3465 152.55301
-36.612751 12.485445 151.50751
-32.292301 10.799581 160.1235
-31.755749 13.692825 158.9565
-31.67535 14.341365 158.60249
-30.145802 -31.029299 14.32605
-29.549099 -31.725151 14.635036
-38.539349 -17.7885 12.71778
-39.803848 -14.55762 15.23715
-28.7616 -31.480951 8.3281803
-34.782749 -17.34795 2.032635
-35.530952 -17.9286 3.1426499
-27.872551 -30.8214 5.2758002
-22.796249 -34.80735 3.18804
-20.1285 -39.176102 11.277374
-23.80545 -36.848698 11.92014
-27.076649 -33.416401 8.7934351
-24.69375 -36.057152 11.7792
-30.34515 -34.330353 123.54916
-41.000401 -10.299915 12.95724
-41.824501 -1.0738125 10.456275
-36.864147 22.154549 122.53846
-37.460098 21.1329 123.1713
-36.014999 23.477251 121.8936
-34.387352 25.525801 121.95375
-29.526001 26.5767 146.3457
-31.052097 29.256001 123.9084
-35.829899 10.16463 1.445112
-20.852249 27.032999 0.1698225
-33.376652 -6.4241247 -0.84787053
-35.858547 18.80625 13.828156
-34.929901 20.1945 12.156225
-35.033703 19.846951 11.219535
-35.421749 18.963751 10.28766
-41.600849 2.4870601 12.099495
-43.36755 6.7239003 122.3223
5.273325 42.1422 124.0236
5.9580603 39.435749 144.75195
6.5166302 39.031799 147.34966
-25.342649 20.429401 161.73901
-26.901751 18.316051 162.01649
-30.599249 24.549 148.8549
12.119835 41.019001 121.64491
8.7435751 39.302101 13.11942
13.155585 40.781853 122.6565
10.18761 38.602497 145.27966
7.6830153 38.75745 147.98535
8.4682798 41.745903 124.25805
13.60803 40.5495 124.1115
7.6619554 38.60685 148.74149
8.0858707 37.592251 151.101
3.2665951 38.760597 149.44095
3.6094201 39.140701 147.93901
-14.518411 37.497299 10.215045
-13.909095 37.908451 12.023865
-15.28995 37.0788 9.471405
32.637749 14.328554 160.347
37.816051 17.60265 144.87675
39.3978 13.728869 146.24355
39.507603 12.778215 147.65611
37.759949 15.682651 149.5779
38.209351 15.103499 149.02185
38.691299 12.27 150.786
36.8088 15.145201 152.08499
33.592651 20.239349 152.50349
43.162502 12.151185 123.2244
38.030697 18.6483 12.79089
38.83065 17.267401 14.149785
39.436199 15.694649 13.3032
40.076702 14.07207 13.496025
36.451649 19.1238 4.9723949
37.295998 15.779551 3.1916401
6.7460246 39.705597 12.754334
4.2439499 39.228149 7.281405
4.2909446 39.420452 8.2659149
4.2674251 38.667603 5.4026699
-0.077952601 39.38055 6.414165
5.4835649 38.639549 6.0971551
2.6284051 39.52755 8.0404205
11.125785 29.131649 163.593
22.380301 33.524998 146.397
25.756802 31.489799 145.51575
23.328899 24.875401 160.875
28.316551 21.069302 159.65401
29.168251 18.389999 161.51999
27.377251 22.002451 159.849
30.6264 17.95455 160.0305
31.763399 23.37105 151.608
23.32485 -31.34535 0.1851555
-21.916199 -34.409554 1.9802401
-23.990551 -32.17065 1.9051501
-22.15155 -33.8232 1.67619
-23.317049 -31.3617 1.1328496
-30.229952 2.7574499 -1.3244325
-32.295898 0.381129 -1.068795
-22.366499 -35.516998 150.85651
27.463499 -25.304249 161.0295
30.111752 -22.3596 160.86749
34.32 -26.116201 149.3934
21.70455 -38.047798 147.73199
20.217001 -11.736975 185.595
20.556149 -30.397049 161.94751
18.637949 -40.020599 146.2728
15.1713 18.84885 -1.6502401
25.210499 8.3712454 -1.6445849
2.5661399 26.505301 -1.5018001
0.59876251 27.217499 -1.4750085
-16.81155 33.685947 2.011395
-14.97435 34.702347 2.180115
-11.05689 36.554401 2.5570948
-8.0373001 36.024899 1.1434319
-7.06107 32.806351 -0.5283075
35.53965 8.8191147 0.1861245
34.053001 7.6846647 -0.31906348
40.637253 -13.93464 6.7558351
41.474251 -14.190796 12.584685
41.918999 -10.544354 9.4676704
38.704201 7.5810304 2.117955
39.494102 6.5107498 3.2140951
35.987698 -18.703499 1.0748625
39.997501 -17.224649 144.31544
41.880302 -10.022535 146.1588
39.870903 -23.2995 124.97581
38.853298 -19.61655 145.6866
37.190403 -22.29225 147.56821
37.0797 -23.23065 144.83565
39.025803 -25.041601 124.15695
41.5686 -20.415449 123.09406
40.288349 3.1942501 152.32051
40.661549 2.2283552 151.737
41.358452 -1.015083 150.86551
40.108051 7.3917298 150.9585
42.532051 -8.7637348 11.603189
41.892899 -9.81285 8.6114407
42.698399 -3.126585 9.565815
42.348602 -9.5614796 11.105175
42.785099 -5.5834651 11.62689
42.595951 -9.2458954 13.10154
42.822601 -6.17835 12.580996
41.631149 -6.0909147 149.54865
41.792252 -9.2964745 147.58275
41.943451 -6.4700098 148.45876
36.190498 -9.4440298 159.858
35.273697 -11.430075 160.7235
37.76865 -16.329 152.68051
34.817997 -13.893435 160.19701
39.167252 -13.191675 152.1465
41.3913 -9.5868301 149.00235
41.29245 -10.78458 148.2807
40.321201 -10.423574 151.194
-27.48 28.0788 7.1872354
-36.432449 10.68021 2.1669152
-4.2451949 36.943199 1.54155
-4.8931651 38.106903 3.2818348
-1.717905 38.542648 3.8505599
1.2320355 38.173347 3.4654801
-3.5892301 34.49715 0.022340551
-2.0674949 32.709751 -0.52862251
2.179575 37.77615 3.0520949
-0.86677802 37.47765 2.1822901
-1.6881599 37.602299 2.2555051
-21.57015 30.845551 2.51475
-22.629749 30.006899 2.6488349
-23.592299 29.93865 3.465225
-19.64085 32.9547 3.3930149
-18.004499 33.373501 2.5379701
-20.572201 30.092251 1.197651
-21.396299 29.51955 1.339113
-19.939949 30.757349 1.2359325
-11.120535 38.688751 10.0887
-11.32836 38.770351 11.50413
-8.4958801 39.0723 8.5855799
-11.185095 38.342548 7.6706848
-11.933445 38.658749 11.82978
-13.292835 38.067596 10.608584
-2.8689451 40.054951 11.2356
-0.35883451 39.7626 7.93608
0.73484403 40.311447 13.711531
-4.27845 39.8508 9.9409647
-4.3697548 40.045349 13.353346
-1.8950551 40.1889 13.882635
21.901201 30.5037 1.84227
33.928497 19.414051 1.3321664
29.0949 28.858952 7.7715898
27.182251 30.615149 8.8809452
24.0711 31.584002 5.0542798
30.754353 23.520451 1.3090049
31.01895 25.67145 3.9025197
23.048401 32.864998 7.0377903
20.958151 33.882 6.8278499
23.967899 32.021999 6.02949
24.8241 31.9674 7.6483798
23.351999 33.112049 8.9823608
19.955101 34.678051 7.9433546
16.8447 19.32435 -1.627965
25.0047 17.26215 -1.4152216
31.64385 13.9275 -0.74379754
34.154247 14.43336 0.075662099
34.61565 12.359505 0.012372255
-24.01965 14.64753 165.933
-25.450649 12.45615 165.88499
-23.6388 13.30899 166.509
-23.150551 18.888149 164.634
-24.5289 15.43125 165.41251
-22.62015 15.132 166.446
-23.334749 16.54845 165.60451
-26.029051 2.7298501 167.3775
-26.342999 2.00931 167.30701
-26.256599 3.8125951 167.1375
-26.39325 4.3761749 167.00101
-26.0037 3.345495 167.32051
33.443848 12.50139 160.4955
33.68325 12.166679 160.3185
34.775249 10.187145 159.7305
21.9489 4.9876199 185.86499
22.31115 4.4704952 185.72549
22.0881 5.185245 185.592
21.499199 6.0956249 185.664
15.24015 -4.3242302 186.75
15.073349 -3.58413 186.711
7.8707547 31.431448 161.9745
19.5495 7.495275 185.75699
15.66915 3.3515251 186.657
-24.396151 9.7143755 167.073
15.935101 4.3255053 186.5715
16.088549 4.766295 186.5235
20.688751 6.3002696 186.06
20.2635 6.6326704 186.09151
21.42075 5.7256198 185.9445
22.06185 4.0197601 185.97751
22.1031 4.1237397 185.95351
15.112949 1.5470999 186.6555
-12.80388 -30.325798 165.14249
-15.489 -32.2938 162.28799
15.286351 -5.8240499 186.7245
-40.517548 1.681905 147.71356
-39.778801 5.3770652 148.8954
-39.565651 4.4230051 150.1275
-40.024799 1.7356651 149.5464
-40.3353 5.028945 146.68109
-40.692001 2.7962849 146.3166
-40.677448 0.1446024 147.534
-38.39505 -6.20046 152.97301
-37.5051 -8.2309504 154.09201
-31.936352 3.2789249 163.55249
-27.5142 5.7267299 166.26601
-26.632351 6.6745052 166.6035
-27.0042 4.4846702 166.68149
-29.610149 3.7789199 165.29401
-28.276951 5.3047647 165.89099
-28.4709 7.3093801 165.48901
-29.550449 5.3313904 165.078
-33.687149 18.37335 151.59451
-33.1791 18.362101 152.44049
-33.036751 19.759649 151.25851
-34.501202 16.11405 152.5065
-35.351402 15.901349 151.233
-39.290699 -14.142795 146.07976
-42.461849 -14.196225 123.64981
-39.506401 -11.97078 147.76515
-40.789951 -3.7796402 147.282
-40.454849 -7.8066454 147.32146
-39.941399 -11.069715 146.6826
-33.192451 -27.13155 11.018354
-30.620699 -30.226801 11.569575
-32.790001 -27.87405 13.9161
-34.335152 -25.663799 13.770226
-29.58375 -30.704699 8.8552198
-32.2836 -27.4746 9.1765203
-28.4412 -32.457001 10.06656
-35.73225 -28.30545 123.49934
-38.4282 -23.967001 123.49229
-37.26495 -20.684099 12.365849
-35.99115 -22.1724 9.6196051
-35.005798 -24.1266 10.49457
-35.801849 -23.24115 12.794685
-34.42305 -25.37295 11.893064
-37.22715 -14.66556 2.907855
-36.190048 -17.75955 3.67155
-35.715149 -19.999651 5.3134952
-22.547852 -36.711151 6.4646702
-22.700251 -36.93045 7.5767398
-21.8985 -35.805447 3.43752
-23.844 -34.659149 4.387455
-26.154749 -33.344849 5.79459
-24.971251 -35.023201 7.7088752
-26.45565 -33.636299 7.3921499
-23.6574 -36.14595 146.48445
-27.209101 -32.438248 149.03174
-27.405899 -32.089203 149.42639
-22.5765 -35.99295 149.4648
-27.9186 -32.604599 146.16675
-25.988251 -33.8703 147.7518
-23.99505 -35.8032 146.8287
-33.73185 20.971651 147.44385
-33.490948 22.128599 144.59116
-31.6824 23.408701 148.56046
-35.010899 19.335001 146.05441
-33.565498 20.111099 149.69205
-36.11655 16.81065 148.1055
-40.727547 -9.8331747 8.6563044
-40.432053 -11.52174 9.7490702
-40.34565 8.3610744 13.41252
-33.257549 10.73457 0.33967951
-22.625551 26.813099 0.70835251
-22.437 25.788301 0.37047148
-34.52655 -7.3380151 -0.54353249
-34.697701 -2.1654451 -0.67950147
-34.882198 -6.4538403 -0.51257551
-35.203651 -0.82364249 -0.52387798
-38.396847 11.738835 7.077405
-40.028549 9.3141451 11.54547
-21.467701 33.309898 144.72929
-22.883999 35.486702 124.02316
-26.032801 33.455551 123.22276
-21.84795 32.977798 145.51155
-24.776701 31.044298 144.9111
-27.04875 28.976398 145.8615
0.20457599 42.482399 123.72796
-7.7444406 38.780552 145.47719
-11.063955 40.721401 124.09259
-18.8241 34.225647 148.58429
-20.978401 36.433952 124.83135
-20.73675 33.385651 147.11731
-15.384901 36.343651 145.87845
-17.632351 38.32695 124.05105
-13.957275 39.7332 124.52235
-16.3011 35.767502 147.03331
-23.9142 20.060551 163.4295
-24.1164 20.67675 162.7485
-28.19985 27.73605 147.1248
-30.896101 21.39135 152.9265
-28.050749 19.655399 159.0345
14.490525 37.63335 11.142179
15.233551 40.13895 121.00425
15.60465 37.341148 13.19058
9.5767803 39.139347 14.23896
9.4067249 39.086552 11.96241
13.94931 37.4202 9.5143499
17.18325 36.614849 11.883675
17.1129 36.142353 9.0198898
19.30575 35.485649 144.93344
22.1898 37.060051 122.982
16.866301 36.395699 145.86121
18.815399 38.434952 124.5732
18.203701 35.7318 146.6091
20.051699 34.905899 146.62305
14.878995 36.085949 150.2655
13.015155 36.674252 150.58051
13.682895 37.5681 146.8125
15.45195 36.769951 147.1293
18.6423 34.803001 149.50801
14.755065 35.49345 151.5825
13.40577 31.91745 158.5995
13.0368 36.534451 150.87
10.743495 31.796249 160.38
10.881149 32.281948 159.46201
7.6438646 37.0275 152.38649
1.3031806 38.0835 151.46851
4.9941602 37.96965 151.125
6.7679701 36.848698 152.9415
35.5326 20.507999 147.81689
37.237202 16.823851 149.53215
37.9758 16.26375 148.104
36.138298 19.962601 146.6208
33.77235 22.554749 149.16269
30.924299 26.620501 147.02371
32.636852 23.082001 150.64349
34.422451 21.4923 149.4576
34.184399 22.933949 146.65381
37.34985 19.794149 12.007561
7.8224249 39.009449 9.2988453
8.6278944 39.0951 10.638915
12.99255 37.704449 9.3425703
6.2662048 39.29805 8.9231997
8.3230953 38.407799 7.46592
15.23985 28.958401 161.97
20.0571 7.1763902 185.9265
12.680176 29.866949 162.1935
13.842825 31.176149 159.5955
13.865835 35.467953 152.31299
28.498348 27.624901 150.4875
28.512751 27.838949 149.99596
29.964901 25.98855 150.92101
27.123301 29.613451 148.70534
23.671051 32.539803 147.23849
22.127251 32.979897 149.13104
19.57935 34.062298 150.3105
20.173349 26.524799 161.616
25.24095 -34.66605 3.8089049
23.697001 -36.172348 4.9595251
23.92935 -34.3479 2.3552999
26.096251 -35.01825 5.6794348
29.9967 -30.598801 3.0421801
27.19665 -33.23415 3.6115351
26.38575 -33.288601 2.7726152
28.337999 -31.072351 2.0974801
7.119525 -27.48135 -1.608525
15.34125 -25.7931 -1.5634949
12.54402 -26.31765 -1.582605
22.960499 -33.540749 1.248909
23.892448 -35.057697 3.1658552
21.2169 -35.427448 2.1488552
3.5615399 -41.275047 2.274915
4.6628251 -41.882549 3.5109451
-18.713249 -39.8283 9.2485209
-17.11095 -40.921352 11.64447
-16.02615 -41.402248 12.257595
-12.26904 -44.775749 121.36095
-20.61195 -37.85265 5.9677048
-35.277752 -10.93215 0.14730901
-34.164898 2.77161 -0.63700354
-30.340801 1.408929 -1.3518496
-32.347797 1.554795 -1.031649
29.977049 -35.969398 122.6244
22.794151 -41.030849 123.85875
25.56765 -36.169651 144.75
29.9499 -35.995499 123.67215
20.361149 -39.181648 146.3676
19.930351 -39.387447 9.10425
16.462051 -40.88895 9.2261848
-5.1009598 -46.368298 124.2567
0.36724049 -46.770599 124.33321
-8.4045601 -42.991051 145.8828
-13.743031 -34.000801 161.15399
-14.981025 -33.117599 161.6925
21.00555 -11.232555 185.53951
21.12495 -10.991865 185.649
30.812252 -28.992599 151.47299
30.8871 -29.324099 150.924
27.552 -25.987801 160.1235
30.036449 -23.402699 159.75751
32.139153 -26.663549 152.45851
33.48555 -25.79985 151.536
28.240499 -32.570099 149.8047
25.41555 -35.9925 146.69789
27.35535 -34.205849 147.22545
24.251551 -36.591301 147.25185
22.655251 -30.954302 159.3465
22.69335 -30.007799 160.632
31.478552 -30.3603 147.11176
33.201599 -27.427801 149.54236
31.9932 -29.882101 146.7066
30.379951 -30.513599 149.91675
29.855249 -32.335197 146.0652
31.505699 -30.71925 145.31146
-8.2182302 -32.3148 165.0105
18.315149 -32.317501 161.36099
20.583151 -31.830751 160.08601
18.526651 -11.580705 186.075
7.3947754 -43.852352 143.26065
9.7016096 -43.259701 144.09555
10.655685 13.53564 -1.72281
1.091643 24.45405 -1.62927
22.920898 12.810585 -1.6575451
23.486099 12.016575 -1.653525
25.551001 13.028685 -1.5756899
19.663651 5.5321798 -1.71735
23.2188 10.95114 -1.67133
20.20455 -22.25145 -1.614195
29.680201 -8.9992199 -1.386564
30.584099 -3.3345749 -1.2656655
29.311651 -2.8920901 -1.464951
-15.0165 30.485703 -0.37480199
30.658649 6.2692051 -1.149186
31.521299 10.5147 -0.88795048
32.810852 12.00612 -0.56471097
29.29365 6.9026399 -1.4152305
30.38925 -0.0469038 -1.294122
29.74995 7.5713396 -1.3294306
29.18475 3.2864401 -1.4576415
27.417 11.186295 -1.51308
29.3682 10.62846 -1.2780315
29.1537 -1.0684606 -1.4783325
26.684401 -31.099798 1.0782645
25.175098 -31.949251 0.91463852
41.130447 -15.0237 10.96902
40.689301 -16.8822 13.129245
40.1661 -11.9643 4.2627602
40.980598 -11.61237 6.0096898
40.852051 -10.66794 5.5272298
41.0145 3.737025 5.6106148
39.181648 -11.059455 2.7947249
39.594601 -8.9071198 3.3920848
39.998398 7.4484148 3.918855
36.361198 -15.233701 0.63594449
38.259602 -12.20724 1.70547
36.415501 -14.253466 0.581343
36.638851 -16.194901 0.927468
22.5327 -8.3030396 185.7585
21.647549 -10.190235 185.78099
23.29155 -1.262916 185.91901
36.9174 -0.68265146 159.819
36.614098 1.2180674 160.1355
36.381001 -8.2489653 160.011
23.2656 -5.9935651 185.57249
23.0229 -6.9699149 185.59949
40.682102 -4.8714747 151.98599
40.393047 -6.2334599 152.33101
41.550301 -1.9769101 150.6255
36.279598 -1.86984 161.11949
38.653049 -19.353748 147.47641
39.420002 -17.8374 146.80396
-35.224197 12.28701 1.924185
-35.353199 17.4258 6.98985
-29.107651 25.64175 6.5539951
-32.367001 23.35935 9.5163593
-35.498249 18.50745 9.46134
-36.532497 16.378651 8.5384951
-36.522751 14.74551 5.7148652
-36.17625 15.298201 5.7355199
-37.050152 12.66777 4.371315
-1.0313084 36.04335 0.86660099
-0.41238299 35.001301 0.33265498
3.1154099 35.593349 1.137453
-1.6338 36.047253 0.81447148
0.38862148 36.69075 1.503345
-0.063229948 31.877701 -0.64661103
3.4572299 32.50185 -0.12015374
1.2855226 34.6647 0.38889301
21.2253 28.876949 0.65142596
30.12945 22.035 0.31246349
25.886551 26.679901 0.736911
23.756701 27.75345 0.60996753
23.57535 29.21505 1.4967736
28.965899 26.295301 2.2546952
28.994101 24.691799 0.96207899
30.230549 25.299299 2.3600249
27.176399 27.805799 2.31039
27.175499 29.142151 4.1897249
25.93095 29.92605 3.9794848
25.92885 28.9107 2.4767549
28.997101 27.304951 3.566865
27.3741 29.6763 5.7123299
30.327301 27.2703 5.815815
15.08655 24.546301 -1.224894
10.820715 25.970249 -1.247421
17.2728 23.583599 -1.2432075
20.890202 25.44405 -0.53539801
16.01745 20.642401 -1.586205
17.5755 22.49925 -1.403391
11.818439 24.50535 -1.418628
2.8438048 25.8606 -1.538985
6.9740701 25.158901 -1.50477
7.0097246 25.8624 -1.4412735
9.5629196 22.6383 -1.5906299
15.723001 22.05405 -1.5228601
28.098001 16.670851 -1.104126
26.252701 17.32155 -1.2770805
24.7215 22.6728 -0.74710047
21.41655 23.797649 -0.8495025
-20.1315 20.36895 165.4395
-22.272449 17.882551 165.564
-20.705099 17.858099 166.27049
23.2728 0.3477315 185.8575
23.41785 0.4744935 185.703
22.647751 3.4186349 185.817
35.9622 6.3220348 159.69601
37.14135 3.3517652 158.526
7.0431752 31.444799 162.2115
7.6729202 32.285248 160.77901
6.8464198 33.545403 158.9205
20.52405 6.8176646 185.98801
20.755501 6.6661797 185.952
20.392649 6.7684197 186.0435
20.294701 7.046865 185.9415
20.6994 6.9991198 185.79449
16.7178 5.596035 186.45151
-18.093 21.7323 165.63
-17.16255 23.2719 165.19051
22.996651 0.980955 185.937
23.2269 -0.30122399 185.91301
23.24655 0.26365501 185.88449
22.79055 2.24685 185.9115
22.8081 2.3401949 185.89799
16.21785 3.9200699 186.6525
15.4596 -2.5148699 186.75301
-20.070299 32.104652 151.56599
-17.4429 32.648548 153.189
-3.563565 31.083452 163.0905
-0.35242799 32.061901 162.15149
-2.9744101 30.222599 163.9845
0.110052 30.517799 163.9155
-20.679001 23.524651 163.10851
-21.10635 21.139799 164.577
-17.710949 22.817101 165.2325
-14.793645 24.685801 165.21599
-12.65241 24.216301 166.16699
-13.65858 24.185249 165.87601
-27.680552 -6.1893301 166.629
-26.87475 -4.2622347 167.12399
15.066151 1.0136025 186.66449
14.95248 -0.68505299 186.6705
15.07155 -2.80722 186.71251
-17.005049 -29.59185 163.9635
-16.14045 -27.1383 165.84149
-14.7399 -29.6805 164.886
-13.652221 -29.18265 165.5865
-23.502602 -34.709099 150.87149
-24.708752 -26.99295 160.245
-23.04015 -27.975 160.92149
-25.24575 -32.371799 152.1825
-28.033051 -29.49135 152.55301
-22.491449 -28.862701 160.4055
-32.805603 -4.0555348 162.9585
-33.713402 -2.1248851 161.991
-28.212151 -19.289549 162.93449
-36.553497 -15.4995 152.6115
-35.258099 -18.24675 152.85449
-36.699451 -16.432499 151.7025
-30.515099 -18.075901 161.0415
-16.759949 -26.1021 166.15201
-18.3486 -26.757301 165.19351
-39.790951 -2.3009701 150.97499
-40.467449 -2.2306948 149.19121
-40.020599 -0.20905051 150.009
-39.55875 -5.4533253 150.927
-38.754753 -3.050355 152.8065
-39.3363 -0.28436399 151.59
-35.319752 -1.6468201 159.1965
-39.23505 2.136045 151.39799
-34.4328 -2.5067849 160.83449
-31.115252 1.339695 164.4765
-31.308599 1.67064 164.27849
-31.309952 -3.3737249 164.47501
-30.545099 -3.0311999 165.05849
-30.151649 -0.00577938 165.2565
-29.851801 2.54214 165.32101
-38.7882 -11.572229 150.45
-37.974602 -13.578435 151.15649
-40.076702 -8.3578653 148.88866
-29.119049 -21.141899 160.4115
-27.622049 -21.4473 162.147
-26.354849 -24.342899 161.02351
-28.6161 -24.209551 157.9335
-30.038698 -19.3008 160.69049
-31.385099 -18.778051 159.078
-33.030449 -26.961601 146.00746
-30.34005 -29.852551 146.99834
-30.493502 -28.74375 149.4888
-39.89325 -21.331949 122.7099
-40.444351 -20.010752 122.76164
-30.7794 -26.566799 152.259
-30.5061 -28.438951 150.0285
-29.5998 -28.91325 150.981
-37.011452 -20.987551 11.214931
-41.465099 -4.981905 8.743125
-41.5257 -7.0471649 11.11623
-41.472748 -4.0327349 8.16714
-41.8857 -2.624625 10.357725
-40.30365 -6.205575 4.3770599
-41.092201 -4.1425648 6.3055949
-40.9506 -7.7794647 7.1929502
-40.873348 1.838055 6.2555251
-40.9053 -0.034121551 5.650815
-41.2089 2.3615401 8.1969299
-41.340897 0.3263475 7.7442446
-38.077499 -11.595031 2.3960099
-39.063599 -10.668135 3.575475
-38.904152 -11.623184 3.776895
-38.109001 -13.80042 3.661545
-39.8256 3.64254 3.7953749
-38.41185 9.6794252 4.5679197
-32.208748 10.506495 -0.035287052
-21.56925 25.00845 -0.0550908
-33.185398 9.9305401 0.1235595
-31.215002 9.1969357 -0.491328
-36.96645 -4.1264853 0.1677615
-36.064651 -4.9614148 -0.14503725
-35.434948 -7.2651448 -0.26456702
-37.809002 -3.2439599 0.65469748
-36.235649 -2.1751199 -0.19215
-36.954449 -10.606665 1.011054
-38.033253 -9.7913256 1.698195
-37.512447 -12.183105 1.854345
-37.370998 -8.0635347 0.79376704
-35.888248 -11.800665 0.54339004
-35.286453 5.3796449 0.01085184
-36.229202 2.37516 -0.00233931
-34.249649 6.4010401 -0.2389725
-35.386051 9.3657446 0.89386648
-37.330349 7.3118401 1.4781644
-39.315002 11.705175 14.387385
-40.143749 9.0549002 12.254669
-42.37365 10.792635 122.1711
-39.202351 11.83266 12.34782
-40.947903 14.469555 121.9485
-39.37545 18.1905 122.57294
-37.5243 15.7314 13.089225
-41.153252 4.6109252 10.114454
-22.366949 31.464001 150.063
-23.66835 31.36635 148.01639
-20.824499 32.7183 149.31961
-24.742199 29.90535 149.51476
-14.213175 35.4072 150.91951
-17.48715 34.3908 150.1035
-1.4997541 39.273453 147.459
-1.8491249 39.57045 145.29945
1.3655175 39.658501 145.98465
-3.0146699 39.458549 145.50615
2.3575201 38.817451 149.47874
-9.9707556 37.838848 147.9606
-13.10088 36.804901 148.44075
-12.71658 36.837601 148.89841
-10.092315 38.18895 145.79205
-8.3133898 38.319599 147.5253
-22.721251 23.684999 161.106
-19.2687 24.899401 162.94051
-29.4993 24.94005 150.513
-31.336052 22.43565 151.03799
-29.2722 23.694901 152.49149
-24.986401 22.103249 160.41901
36.6213 20.502901 9.0959549
36.971401 19.419001 7.4201999
37.497299 19.420801 11.10213
35.448902 22.7904 10.458976
35.390999 22.0263 7.1821504
38.053951 16.592699 5.9095349
38.399998 14.85852 4.84905
38.959652 12.00888 3.7308002
26.004301 29.276402 151.2645
22.550251 27.041401 158.6985
27.18 28.6551 150.681
26.17905 22.993052 160.1745
28.15275 26.457899 152.68649
23.978701 31.129349 150.80551
21.86475 27.2271 159.12601
19.081951 34.009354 150.98549
18.9657 28.714201 159.60901
16.2768 29.0217 161.3445
19.05525 27.529051 161.25301
20.112148 27.658499 160.158
16.0284 29.85495 160.27051
19.859549 32.8353 152.22751
15.09885 -19.496851 -1.70412
17.381849 -18.9681 -1.6971
28.43475 -33.457348 6.4848452
-4.3179002 -32.476948 -1.4324445
3.9490199 -28.88625 -1.59465
6.9881549 -28.89225 -1.54125
-5.97192 -31.289999 -1.5262799
-8.5601702 -33.163651 -1.2390389
-12.123645 -32.760902 -1.0685894
-7.8802199 -32.056198 -1.41987
-17.79945 -35.330551 0.49431151
-19.01865 -34.8162 0.67719746
10.011314 -45.950249 122.32005
19.82325 -37.641449 4.5330601
20.2782 -37.040699 3.8080349
-16.044451 -33.790947 -0.45318449
-15.8199 -35.32095 -0.0485253
-14.545815 -33.7314 -0.70212001
-18.7764 -32.75985 -0.14556511
-33.368999 -15.05295 0.358971
-22.7148 -31.113899 0.70881748
-35.407799 -14.966925 1.3104165
-34.7481 -13.37298 0.454707
-28.879351 7.5707102 -1.166646
-2.6300251 23.050049 -1.67322
-5.9863052 23.654249 -1.655295
-27.89415 5.849865 -1.4415181
-27.539999 3.796725 -1.546635
-29.97435 2.52264 -1.373055
-28.5597 6.0414152 -1.351452
18.326849 -43.274097 121.28249
20.538601 -42.370502 122.88285
19.8465 -39.994049 16.718851
25.242449 -39.54945 121.93546
29.750101 -36.150303 122.32545
21.306749 -42.024452 123.1479
15.79695 -41.583298 11.837805
16.8339 -40.922249 9.9745197
16.248301 -41.52705 13.99236
19.50705 -38.728798 6.424665
19.10565 -39.147598 7.1204247
22.140299 -37.572899 6.1583252
18.94845 -38.18655 4.9464602
20.426401 -37.4076 4.5072451
-16.938 -43.0704 123.2943
-17.141699 -37.592701 152.6895
-13.798245 -33.095402 162.345
-15.954 -30.98205 163.3905
-10.847219 -31.995298 164.586
-11.28216 -31.718699 164.6505
21.614849 -10.016925 185.88301
22.15485 -8.8884001 185.862
20.6313 -10.890465 186.04649
20.3253 -11.02929 186.0825
25.14945 -34.110451 151.73251
23.37825 -29.972851 159.912
25.43265 -33.389549 152.433
28.1343 -31.841852 151.31549
23.269501 -35.832298 151.0545
25.546349 -34.838249 149.86005
24.093451 -34.564201 152.34599
21.1842 -37.988403 149.09116
19.109701 -11.380665 186.20399
19.108501 -11.564625 186.13501
19.5993 -11.370975 186.14699
18.948151 -11.495325 186.16949
18.5343 -11.139645 186.297
10.659195 -35.69775 161.196
14.93925 -33.719402 161.715
13.79223 -33.505352 162.53551
10.175924 -34.625698 162.7545
20.68395 -38.166901 149.40524
12.169365 9.3986692 -1.731375
12.87855 2.73627 -1.735005
16.288649 6.1815152 -1.7296801
0.72379053 13.79364 -1.7304749
1.537755 19.3491 -1.704465
-0.52608752 19.6926 -1.70739
-1.0386405 22.937401 -1.67013
16.36665 6.4250851 -1.7292299
21.32655 15.08955 -1.65513
11.55264 -28.3431 -1.490721
9.9708157 -29.649599 -1.3993605
21.1359 -22.4133 -1.5939
21.260101 3.9693899 -1.70691
23.489401 7.8008404 -1.6797301
21.255899 6.7139249 -1.7067
20.537849 -19.756351 -1.66449
-11.122815 34.014153 0.26738101
-13.01148 35.2962 1.85799
-9.4981794 35.299049 0.872805
-13.35993 33.927753 0.83140653
-16.444201 32.7621 1.019757
-10.10289 33.144001 -0.18767551
-11.707845 33.179401 0.034946099
-9.3472204 33.947701 0.058526848
-6.0393448 35.349602 0.41906098
-18.296251 30.28125 0.33643052
-13.15878 31.9779 -0.1558785
-13.617465 29.255699 -0.80888098
-11.619345 29.3841 -0.96462595
-11.26443 27.287251 -1.284489
-9.70959 24.48255 -1.60467
-6.5237398 24.68955 -1.626735
28.6632 -13.34121 -1.4449949
29.277451 -10.551374 -1.4282701
26.7714 6.009675 -1.604565
28.558201 7.1597252 -1.488858
26.3748 9.0671854 -1.59603
27.517649 2.5566299 -1.573395
39.291302 -20.44215 11.945085
38.475601 -22.219801 11.356754
39.604351 -18.848249 9.3899107
40.735199 -15.74535 9.3338995
40.574253 -16.74165 10.804605
39.283802 -20.143501 10.80258
23.14035 -5.291235 185.89499
23.3256 -5.2264204 185.76749
23.175301 -5.006505 185.90549
36.613651 -4.9889402 160.2285
36.840748 -5.6338048 159.67351
41.223301 -2.73489 151.24651
36.527248 -3.1999202 160.6575
23.46405 -5.0211449 185.58751
38.318398 -18.63945 149.68814
40.337997 -13.100835 149.5701
37.737152 -18.54105 151.134
38.315849 -18.99165 149.31075
37.050449 -20.1171 151.203
37.029903 -21.117901 150.2115
-35.670151 13.981095 3.63237
-24.971851 28.0485 3.1110451
-35.048248 13.21326 2.3873851
-36.703648 12.019725 3.2474401
-34.898701 15.6486 4.1294546
-35.021999 16.303049 5.0219102
-36.031052 13.798665 3.879705
-27.559799 26.54685 4.979835
-25.282949 28.549648 3.8790152
31.686001 15.26265 -0.61365753
32.838299 16.1961 -0.13992375
32.85405 18.722099 0.45643651
21.91905 18.417 -1.53969
20.39325 19.41 -1.540635
25.671001 15.39015 -1.5010201
23.269949 16.151548 -1.58604
19.995901 16.61355 -1.6498049
19.885201 20.185801 -1.511355
18.19125 22.194149 -1.4103839
23.755499 17.905951 -1.4661839
29.089499 19.20615 -0.66480899
27.42285 19.210499 -0.93755847
29.844601 17.47365 -0.74313897
31.657351 17.874451 -0.21433499
30.607349 20.18865 -0.0746703
23.389799 1.2889485 185.4675
22.982849 2.5093949 185.6985
35.424 7.7129703 160.1535
23.31975 0.92614651 185.7525
35.545048 7.3304849 160.0905
2.011425 30.52935 163.85251
19.18215 7.3146749 186.054
2.9144402 32.66325 161.127
1.3033065 33.738899 159.489
5.1349649 33.694801 158.99249
4.8004351 31.484699 162.558
5.4663301 30.762152 163.3605
1.0721325 31.543652 162.8895
5.4666901 32.189552 161.547
17.48595 6.3452401 186.35701
18.466499 6.89538 186.261
15.715799 3.040755 186.69749
16.164 4.274055 186.6315
15.60255 3.0405149 186.6915
15.79635 2.88219 186.70799
-1.3041359 38.57745 150.0435
-0.25696951 38.595749 150.222
-6.7107754 37.875153 150.345
-8.5060501 37.1325 151.0605
-7.583745 38.110199 149.11545
-4.7121749 38.85675 148.32539
-2.2841852 38.195999 150.84149
18.104851 7.0414653 186.1395
-9.2105551 31.450499 160.968
-8.0751743 30.542549 162.61951
-6.0600004 30.940802 162.71851
-4.6193547 29.867401 164.1525
-18.721201 24.516001 163.64999
-17.736 24.5058 164.1375
-17.854198 27.442499 161.00101
-18.100201 26.41395 162.13951
-26.45265 -2.9611201 167.3895
-26.73735 -12.08742 166.35899
-26.514 -12.027255 166.47751
-25.12665 -12.36921 167.06999
-24.2607 -12.67878 167.41501
15.44505 0.30262199 186.7515
15.21435 0.93934649 186.717
15.507899 2.1348901 186.71849
-19.9884 -31.73505 159.18001
-15.34995 -33.943203 160.2285
-18.6579 -31.165348 161.26799
-20.517899 -30.641249 160.278
-22.031401 -34.965446 152.15849
-22.554749 -26.42745 163.02301
-22.38765 -27.34425 162.27451
-24.3801 -26.31735 161.367
-25.236 -24.27375 162.34349
-19.641451 -27.353399 164.19449
-18.41235 -28.32255 164.24699
-18.072001 -30.491102 162.52049
-28.76145 -8.8380451 165.7365
-27.47595 -11.547 166.0815
-27.880651 -8.8784094 166.23
-28.652399 -6.6194549 166.07999
-31.010098 -8.0278053 164.295
-29.670599 -10.306755 164.9025
-29.92605 -7.11759 165.255
-31.562702 -5.3041048 164.106
-29.7099 -14.833469 163.632
-29.596352 -17.616751 162.5235
-29.7087 -13.0731 164.241
-27.367649 -14.9559 165.33749
-27.99585 -14.863635 164.95349
-27.9618 -18.3402 163.69949
-27.427801 -19.050301 163.77901
-23.883299 -21.773399 164.94299
-25.2363 -19.347599 165.168
23.211451 -2.2002149 185.964
15.41175 -4.1996551 186.75601
15.4995 -6.1946549 186.7305
-23.895149 -23.10585 164.24849
-21.47205 -25.03335 164.6925
-23.03775 -25.3041 163.54051
-24.578699 -21.489151 164.70149
-25.94985 -22.979851 162.726
-36.105152 -22.12635 145.19475
-33.471451 -26.00415 146.92874
-37.001999 -17.565151 4.7611051
-36.61245 -20.560951 8.3098946
-36.028202 -20.63055 6.7941899
-35.756699 -20.602499 6.0705004
-39.833851 3.10059 3.5434799
-38.532299 6.5690551 2.787735
-38.258099 4.4001451 1.6541851
-25.605452 11.799285 -1.298286
-32.9328 6.3344398 -0.55987799
-27.3057 8.6318407 -1.3373896
-32.227798 5.371305 -0.7972545
-38.749649 12.476055 10.789155
-38.127602 13.597919 9.828105
-39.4473 10.40085 9.4372349
-38.979752 12.30615 11.966505
-39.76545 7.8725848 6.9868202
-40.567348 6.0680699 8.727375
-40.521 4.3726053 6.3102603
-39.69075 9.5059052 9.1527901
-39.51825 6.9892197 5.1060901
-38.827202 9.5901899 5.42418
-22.994251 24.001049 160.43251
-21.2376 27.053999 158.097
40.1745 12.603075 8.5717649
39.250801 13.722075 6.16257
38.863949 16.0023 8.4823351
39.941101 14.062469 11.019135
40.838848 11.263365 9.8474998
40.461899 10.941256 7.3596902
38.78265 17.194201 11.27343
12.08823 -8.7894602 -1.73391
3.3333449 -28.27215 -1.62549
14.777849 -23.9298 -1.63905
30.831299 -30.367201 4.0206752
29.67885 -33.5079 13.045455
6.2464499 -30.319351 -1.4712961
-14.302364 -30.540901 -1.1809006
-12.573359 -29.930851 -1.4233035
-13.60998 -31.918648 -1.0780876
-9.8218498 -31.934399 -1.3568655
-10.92672 -30.34515 -1.472688
-14.428695 -28.455601 -1.427991
-11.43018 -29.512499 -1.5173399
-4.3743 -40.391399 0.82116753
1.66053 -41.648998 2.251605
11.31471 -30.375898 -1.208601
8.0998945 -31.439102 -1.196679
6.995955 -31.231649 -1.3105589
4.7934604 -32.504101 -1.162437
-4.9915948 -44.0019 8.3762093
-12.9783 -42.712502 12.57228
14.698441 -42.12645 13.285095
-18.3372 -39.594898 6.946125
-17.5128 -39.1959 4.3639798
-19.751549 -37.618801 4.0460548
-18.713249 -36.726902 1.8415051
-13.94544 -37.785152 0.64440149
-20.311501 -35.307899 1.462689
-14.386995 -39.427498 2.254065
-20.46405 -36.150303 2.4871352
-16.240351 -39.478199 3.5891249
-9.5221205 -42.97905 6.9481049
-10.196085 -34.902901 -0.898812
-6.1030803 -38.151451 -0.273294
-8.4253645 -38.994301 0.23409301
-4.3177052 -40.033199 0.57228297
-9.4531498 -40.717949 1.745685
-9.6098108 -39.594299 0.80895901
-6.42063 -41.45055 1.842405
-2.9266801 -43.04565 4.2504148
-2.681205 -42.25845 2.66979
2.3582101 -42.425102 3.39744
4.4659348 -42.521549 4.438755
-29.123701 -12.07626 -1.1076825
-32.931751 -8.847435 -0.746481
-27.438599 -13.13268 -1.311201
-19.776449 -30.612749 -0.31082398
-23.0313 -20.963551 -1.1232331
-33.069748 -13.57308 -0.09190245
-19.352251 -32.171848 -0.13563465
-17.108849 -30.5949 -0.81655949
-26.901299 3.9640501 -1.580175
-0.92858249 -16.7904 -1.73322
-5.5292096 -19.1343 -1.726905
-1.1106449 12.73878 -1.7327549
-0.053609397 16.663651 -1.7243251
22.956299 -37.839451 9.4639502
20.755199 -39.455101 11.706705
22.646551 -38.450249 13.175325
0.58811551 -44.29755 144.11505
-4.880475 -43.695 145.80211
-19.8009 -41.786697 123.85185
-19.435949 -38.959652 144.8163
-10.41069 -42.7071 144.12839
-8.9812803 -42.7869 146.45505
-12.070755 -42.4002 142.4538
-8.8006353 -45.769802 123.53595
-10.257734 -45.202648 124.644
-16.334101 -39.25845 150.16949
-13.822875 -39.6768 151.4865
-16.28145 -38.888401 151.0455
-15.55005 -39.999599 149.07794
-18.12825 -39.028351 148.7346
20.056351 -11.486565 185.9895
20.660851 -11.059665 186.01199
20.017349 -11.58885 185.9445
19.842449 -11.44149 186.07349
22.762501 -7.034235 185.88301
-7.9294796 -33.563702 164.08949
-3.6862049 -34.222351 164.31149
-11.97597 -32.775452 163.54199
-11.467395 -33.8853 162.558
8.075985 -36.092251 161.5665
6.8188949 -35.146351 163.149
5.0439 -35.808002 162.642
5.6079898 -35.2314 163.2975
13.7097 -36.0933 158.80051
12.984885 -34.958549 161.145
15.3807 -40.4571 149.81985
16.456949 -40.190548 149.33911
15.821099 -40.7136 148.6149
12.212581 -42.433949 146.19075
16.0905 -41.0466 146.50725
13.842255 -45.037502 123.57615
11.863139 -45.519001 123.4863
17.520601 -38.379749 152.274
14.176291 -39.230099 153.09151
14.195985 -35.1264 160.14149
16.98675 -39.312 150.95399
16.820251 -35.1945 158.0175
19.0716 -36.958351 153.3075
20.31345 -37.197151 151.83301
18.8013 -33.332401 159.43201
14.491755 -11.21088 -1.730535
13.453424 -14.523991 -1.72971
14.37045 -5.8262401 -1.73313
15.645899 -11.814465 -1.728405
18.3234 15.721199 -1.678905
19.341751 16.701752 -1.659705
15.751349 18.18615 -1.66035
18.469049 14.8848 -1.686
20.611799 11.39754 -1.6953751
24.434851 -31.0266 0.2309985
16.006351 -27.561901 -1.3971525
14.23503 -28.4592 -1.368297
25.554449 -14.01414 -1.6271549
27.698851 -13.113464 -1.5386699
28.161751 -15.118199 -1.4599559
24.995998 -16.02495 -1.62318
27.227251 -16.561199 -1.5024
18.5811 -7.316205 -1.72386
17.4624 -7.2270298 -1.727235
17.595449 3.2781901 -1.727265
19.2369 3.48594 -1.72101
21.0921 -9.853425 -1.7084551
23.99745 -11.97669 -1.672425
23.915701 4.408875 -1.674315
25.764751 5.9562302 -1.64334
26.324699 -7.0261803 -1.6243351
18.579151 -15.82545 -1.710585
18.105598 -12.526635 -1.720605
14.56242 -14.96385 -1.725945
19.333801 -18.56715 -1.6864951
21.937799 -13.92315 -1.691715
22.2666 -11.29218 -1.69704
20.455351 -11.24055 -1.7118
20.494049 -15.486 -1.697835
24.257101 -14.456611 -1.6622699
-14.006505 25.934101 -1.24278
-14.64651 27.707701 -0.94088101
-13.235325 28.968449 -0.9062295
-17.8458 24.710249 -0.90021145
-17.4555 22.937401 -1.218864
-16.90575 27.31815 -0.67708653
-17.740351 28.1628 -0.4019565
-9.8228407 30.512102 -0.93196952
-6.0596399 31.086449 -0.93706352
-6.54108 28.607698 -1.3108261
-5.1862049 27.891001 -1.435884
-15.702749 23.08095 -1.4152725
-14.07147 21.855452 -1.5813299
-11.366236 25.962151 -1.4460585
-12.419294 26.671951 -1.287339
-14.162775 25.037998 -1.3462665
-9.8678856 27.13545 -1.4022166
-13.880489 23.723249 -1.496658
-13.1427 23.94915 -1.5199051
34.514099 -13.477995 -0.207909
29.07015 -15.048901 -1.334637
30.135748 -13.130745 -1.212456
19.951649 -24.311249 -1.527225
20.728498 -22.8459 -1.58664
16.3596 -25.42215 -1.5647999
15.307351 -27.314251 -1.4652181
29.156099 -17.1294 -1.234692
32.736752 -23.464951 0.50017202
33.5928 -20.62965 0.11131935
29.1639 -23.9247 -0.60322654
38.349003 -14.5851 2.2152598
39.096901 -13.405425 2.8885651
40.072048 -12.722715 4.3151402
38.163902 -22.271999 9.0583057
39.08625 -19.70385 8.1795902
23.442299 -3.1552348 185.826
23.632801 -2.204865 185.709
23.369699 -2.8845 185.89799
23.369101 -4.9674301 185.7645
21.600901 21.024899 -1.2967515
21.17535 21.931499 -1.1911274
24.154499 20.514601 -1.1442915
20.353199 21.153151 -1.3895445
26.9016 23.12385 -0.33818099
27.8787 22.60515 -0.22396651
27.781349 24.16515 0.1976115
26.7927 22.224449 -0.57066149
23.293499 24.87405 -0.46621799
22.07715 26.631151 -0.12128775
19.25865 6.8720551 186.213
18.765001 6.8366547 186.258
20.871899 6.0062099 186.0555
16.4895 4.6333947 186.61049
22.579651 2.3995051 185.9715
-6.5086803 32.743801 159.87599
-2.5032601 33.549751 159.4425
-5.5052848 37.042801 152.56351
-5.2824898 37.498051 151.77899
-1.7301151 32.993999 160.5675
0.6225825 33.453152 160.0815
-5.2172098 33.730949 158.57999
0.29318398 37.680302 152.2785
-3.3898649 32.2593 161.547
-7.9998155 28.79805 164.38649
-13.835865 34.625553 152.5905
-10.94907 32.00325 159.1035
-11.524409 36.124199 151.6335
-8.9907598 31.866299 160.39799
-16.938 34.033798 151.3605
-16.82415 28.69305 160.12199
-12.032985 30.959852 160.149
-10.711349 30.104248 162.189
-10.043475 30.870449 161.54401
-17.0091 28.2561 160.59599
-27.256351 -8.4007502 166.61551
-25.276201 -9.3327599 167.4825
-24.737101 -10.875256 167.53499
-26.354849 -10.5237 166.8105
-25.959 -8.9052448 167.205
15.260099 -0.89732099 186.75301
15.3234 -0.16806599 186.75301
15.352349 -1.1122861 186.75601
15.2502 -3.5533202 186.75301
15.3237 -2.485785 186.75601
15.1092 -0.46055549 186.72301
-37.8978 -10.614765 152.62651
-32.509651 -13.831921 160.6785
-32.76405 -13.881165 160.25999
-37.606052 -12.784965 152.256
-32.150249 -7.6244402 163.377
-30.976049 -12.805201 163.233
-32.8437 -8.0337 162.40201
-32.782349 -7.4256454 162.6405
-34.36335 -21.389999 151.89299
-31.7064 -24.9261 152.664
-32.633251 -25.774349 150.10651
-36.733799 -19.5369 148.61639
-35.630852 -22.428001 147.0177
-37.059601 -19.406849 147.32881
-35.9613 -19.294352 150.87901
-36.976051 -18.376799 149.2845
-37.74255 -15.385349 150.519
-38.915848 -13.583819 148.743
-39.138302 -15.20835 145.08405
-33.884552 -23.191801 150.82651
-33.315601 -24.4722 150.37799
-32.74305 -26.58765 148.5537
-38.29575 -14.542305 4.72857
-39.612301 -11.815725 5.8165202
-39.278999 -3.8494349 2.0692651
-39.999599 -0.61898851 3.0958049
-39.056999 -7.2742801 2.213115
-37.999348 -6.6592498 1.0151114
-40.772549 -2.283345 4.5957599
-38.570251 -0.1308507 1.2456224
-38.719799 2.855355 1.747185
-37.035297 3.09741 0.4626075
-38.902798 -0.77163154 1.529955
-37.770451 -2.0275948 0.57090151
-23.839949 23.744101 159.77701
-25.1397 28.955549 150.79201
-28.2663 25.4643 151.758
-25.133099 29.06295 150.6225
-21.9951 31.331699 150.86099
-25.080149 28.1628 152.088
-25.78845 27.212099 152.556
-0.68180847 -19.4832 -1.729995
10.011045 -17.78595 -1.7242501
13.35567 -15.92325 -1.727295
16.872 -18.014849 -1.708125
14.058001 -21.44025 -1.688625
15.500401 -21.5256 -1.679535
-0.81248546 -26.615549 -1.681725
32.7537 -26.412899 1.95918
32.234402 -28.677599 3.8471551
30.290251 -30.1422 2.8184099
30.810148 -27.589949 1.1822445
35.68515 -27.020401 12.05868
35.980198 -29.74095 122.5176
32.681252 -33.544651 121.74091
35.620502 -26.861099 10.176915
34.019852 -27.50115 5.3234248
-0.18302551 -31.572149 -1.4915251
1.3429919 -29.998199 -1.5769501
-2.67009 -31.531349 -1.518795
1.65576 -31.341747 -1.482924
2.9299951 -31.912802 -1.3792754
-18.642899 -24.730499 -1.373499
-18.157499 -26.530951 -1.2228225
-16.07535 -27.632401 -1.3616639
-15.903901 -27.218401 -1.4231025
-2.2616401 -39.6828 0.32699701
-1.3476255 -40.024948 0.52283996
2.7810149 -40.453949 1.3474065
-4.7915249 -33.30825 -1.3095945
-4.037775 -32.23365 -1.4682705
-6.6388202 -36.232948 -0.76563603
-7.2070799 -36.8904 -0.59720403
-8.3886452 -35.137051 -0.93858451
-6.6129599 -34.625099 -1.0574235
1.6275901 -32.67165 -1.3016144
-5.7522902 -44.38485 14.199435
-8.01618 -43.93605 12.39645
-4.823205 -46.514851 122.8194
-0.92232001 -46.810799 122.67825
9.5420246 -43.531349 13.504951
12.87216 -42.686699 12.70209
12.93975 -42.502949 10.76439
-14.506005 -41.529751 7.5771599
-16.240499 -40.30875 5.7135596
-17.0259 -40.5336 8.2264347
-13.405905 -41.567547 5.8106403
-16.518 -41.09325 10.77153
-8.5792646 -43.65255 10.00137
-7.3615947 -43.98045 10.6284
-11.62866 -42.884098 9.1792202
-8.5877247 -43.608749 9.5587502
-11.623096 -37.37505 -0.0549963
-14.37294 -35.971497 -0.11218995
-13.34754 -34.828499 -0.60042149
-10.370504 -37.80405 -0.073602602
-12.8904 -37.6395 0.26092049
-12.528285 -41.477703 4.4507251
-11.994345 -40.563 2.3808599
1.106616 -44.651848 12.178095
1.7920799 -44.429852 10.78194
4.76793 -44.341949 13.967191
6.90558 -46.5294 123.08279
3.0297601 -46.758301 123.90585
5.6501851 -46.5993 121.5303
-2.147805 -44.520298 11.40888
-1.678785 -44.279251 9.1259995
-4.3708649 -44.39415 11.245214
-0.18311401 -44.67495 12.08577
1.3676655 -43.474499 5.6461802
1.9083749 -42.993 4.5437551
0.4260585 -44.252552 8.7448502
-1.0610654 -43.602753 5.4423299
-0.79014748 -43.210949 4.50144
-21.4839 -16.337549 -1.591995
-18.69945 -20.3067 -1.5896549
-17.1936 -24.796801 -1.50267
-18.263699 -22.6611 -1.5356851
-16.678949 -23.665501 -1.5721049
-23.904449 -17.99295 -1.348767
-25.863001 -16.45575 -1.213122
-21.315151 -21.990601 -1.310058
-19.7295 -22.78335 -1.4279025
-24.45105 6.5855703 -1.62201
-16.126499 19.045351 -1.597875
-27.2439 1.4917126 -1.605195
-19.361099 18.6768 -1.4415735
-17.667002 20.813999 -1.4349465
-20.39415 17.62245 -1.4163045
-21.76125 17.570999 -1.245639
-23.554501 2.89557 -1.678995
-10.465995 -16.840199 -1.72413
-10.50807 -15.9018 -1.725615
-2.7174449 19.1322 -1.7126701
26.387699 -36.082649 11.649164
26.69385 -35.905949 12.68745
24.6672 -37.3251 14.177549
24.7554 -37.104149 11.632455
25.51725 -36.077698 8.2225351
28.01055 -34.5093 9.6943655
3.9683399 -43.683899 147.1236
-0.6458565 -43.765049 147.38609
-0.95947498 -43.5648 148.28731
0.25174952 -43.071598 150.15001
-16.0935 -40.51305 145.41405
-14.227785 -41.426701 144.2415
-18.5019 -42.372299 124.0986
-16.468948 -40.168652 146.7513
-8.394825 -41.955902 150.153
-9.4556999 -42.340351 148.12155
-14.85246 -40.428452 148.713
-1.2592679 -35.448151 163.3605
22.111801 -8.3709002 185.96849
21.501299 -9.9317398 185.96249
22.493549 -8.0113201 185.871
22.3479 -7.8360453 185.95651
21.199799 -9.9115496 186.02701
19.525951 -11.221755 186.1875
22.7526 -6.1715851 185.961
11.04978 -40.760551 152.16
12.552526 -39.8382 153.075
11.71653 -40.9431 151.491
9.1497746 -37.338749 159.039
8.7581844 -40.847549 152.90399
9.8096542 -36.682499 159.957
10.651785 -42.37545 148.4265
13.249455 -41.5518 149.1291
12.25032 -41.29155 150.513
